-1.1656150817871094 0.3753615617752075 -0.3101392984390259
-1.02899968624115 0.7962034940719604 -1.5443990230560303
-0.2652376890182495 1.2702127695083618 -0.6028845310211182
-0.008694291114807129 1.2979557514190674 -0.5685843229293823
-1.3248409032821655 1.189744472503662 -0.8451167345046997
-0.31302356719970703 1.6827672719955444 -0.8690969944000244
-0.3773542642593384 0.1667141169309616 -0.45137283205986023
0.45732203125953674 1.1309870481491089 0.19982421398162842
0.44596272706985474 1.7988296747207642 -0.29276275634765625
-0.6431590914726257 0.7463477849960327 -0.11206889152526855
-1.5901795625686646 -0.24272900819778442 -1.2820301055908203
-1.324094295501709 0.07188713550567627 0.025037914514541626
-0.05058610439300537 0.7931177020072937 -0.8272595405578613
-0.7125013470649719 0.39942336082458496 -0.8448807597160339
-0.2461235523223877 1.0950303077697754 -1.0876847505569458
0.43031832575798035 0.4212484359741211 -0.3584793210029602
-0.3462299704551697 1.0207576751708984 -0.5751371383666992
-0.05970484018325806 0.6894627809524536 -0.9794859886169434
0.6277657151222229 1.0803357362747192 -0.6782712340354919
0.07698449492454529 1.0008376836776733 -0.4051334857940674
-1.0591378211975098 0.3404071629047394 -0.9379678964614868
-1.6036864519119263 0.6740681529045105 -1.6416925191879272
-0.23366113007068634 0.5338172316551208 -0.20293420553207397
0.5056815147399902 0.600031316280365 -0.6490257978439331
-0.6561928987503052 0.4580937623977661 -0.565626323223114
0.4894925057888031 0.9123082160949707 -0.9910335540771484
0.4487200379371643 -0.042913004755973816 -0.3834201693534851
0.3916241228580475 0.6581711769104004 -0.9767130017280579
0.3584595024585724 1.044724941253662 -0.35147929191589355
0.6471208930015564 0.8902332782745361 -0.5823913812637329
-0.8428811430931091 0.6171362400054932 -1.5046178102493286
-1.0931236743927002 0.20155858993530273 -0.683022677898407
-0.8120048642158508 0.0689801573753357 -0.28074634075164795
-0.24568796157836914 0.5755814909934998 -1.1523269414901733
0.4624549150466919 -0.5782912373542786 -0.014033466577529907
0.29858148097991943 0.3775634169578552 -1.259220838546753
-0.09103663265705109 0.4707638621330261 -0.30456018447875977
0.41023775935173035 0.6615535020828247 -0.14314603805541992
0.06070929765701294 0.44484665989875793 -0.6353239417076111
0.10284514725208282 0.17913977801799774 -0.37350788712501526
-1.4291632175445557 0.13194721937179565 -0.8721178770065308
-0.5354733467102051 0.04106047749519348 -0.5189285278320312
-0.894853413105011 0.3834138512611389 -0.9991414546966553
-0.7344068884849548 1.0078518390655518 -0.45916616916656494
-1.117253065109253 0.461897611618042 -1.0616565942764282
0.07762736082077026 0.9134523868560791 -0.010354995727539062
0.5821492075920105 -0.004922389984130859 -1.650109052658081
0.6357870101928711 0.18203997611999512 -1.0533959865570068
0.9420071244239807 0.7092542052268982 -0.350538969039917
-0.23359254002571106 0.848357617855072 -0.5741329193115234
-0.23896922171115875 -0.44990622997283936 -0.4930652976036072
-0.9811868071556091 -0.008787229657173157 -1.2361111640930176
-0.6958104968070984 0.42320430278778076 -0.7746313810348511
-0.3114866018295288 -0.012886404991149902 -0.3291398882865906
-0.5197298526763916 -0.3922981023788452 0.25338926911354065
0.5121505856513977 -0.0012309253215789795 -0.2436354160308838
0.9672419428825378 0.6175262331962585 -0.41015076637268066
-0.3841916024684906 0.4382838308811188 -0.3286890387535095
0.6223893165588379 0.016249030828475952 -0.45184701681137085
0.25135529041290283 -0.4240396022796631 0.34412097930908203
-0.1656225621700287 -0.6454830169677734 -0.49174606800079346
-0.7867860198020935 -0.20716291666030884 0.09429571032524109
-0.3825906813144684 -0.9088813662528992 -0.8144212961196899
-0.21024760603904724 -0.6859395503997803 -0.25699281692504883
1.0244826078414917 -1.137400507926941 -1.0241663455963135
0.3690621852874756 -0.26825398206710815 -0.7914762496948242
0.15031293034553528 -0.5595751404762268 -0.6520314812660217
0.7290356159210205 -0.11106210947036743 -0.5478901863098145
0.6676576733589172 0.005842804908752441 -0.67094486951828
1.4702335596084595 0.097007155418396 -0.44806599617004395
-0.7788521647453308 -0.8350930213928223 -0.9182102680206299
-0.4951152801513672 -0.10711389780044556 -0.9366263151168823
-0.21629324555397034 -0.6461195349693298 -1.0223907232284546
-0.41660839319229126 -0.2231045961380005 -0.10096263885498047
-0.33844417333602905 -0.420621782541275 -0.7050130367279053
0.9377831816673279 -1.352225422859192 0.6179870367050171
-0.22666025161743164 -0.7585585117340088 0.5596804618835449
1.425441861152649 0.06761938333511353 0.1142585277557373
0.07583014667034149 -0.12736068665981293 -0.29855677485466003
0.8722216486930847 -0.1525459885597229 -0.2806049585342407
-0.6827878355979919 -0.9273906946182251 -0.8450801372528076
0.09822998940944672 -0.9099652171134949 -0.5632193684577942
-0.01830807328224182 -0.6887434124946594 -1.0577250719070435
0.3306939899921417 -1.1614487171173096 -0.8071798086166382
0.1990731805562973 -1.1092684268951416 -0.906767725944519
0.7383179068565369 0.11058725416660309 0.36720168590545654
0.4250132143497467 -0.731355607509613 -0.862524151802063
0.25022444128990173 -0.7701433300971985 -0.15956106781959534
2.0262808799743652 -0.822540819644928 0.20589017868041992
0.30453255772590637 -0.6648592352867126 -0.06540250778198242
-0.3960117995738983 -0.5090048909187317 -0.05757895112037659
0.06569281220436096 -1.1187578439712524 -0.5514858365058899
0.14751970767974854 -1.9539347887039185 -0.41296255588531494
-0.34126320481300354 -0.8282198905944824 -0.5098649263381958
-0.8434534668922424 -0.9936366081237793 -0.5043524503707886
0.12737195193767548 -0.1977078914642334 -0.5326734185218811
0.3450547456741333 -1.3168457746505737 0.6244245767593384
0.8923853039741516 -0.35947611927986145 -0.21233272552490234
0.8363133072853088 -1.5104305744171143 -0.509261965751648
0.5349410772323608 -0.5186136960983276 0.33396023511886597
-1.2909362316131592 0.13663595914840698 -0.5095371007919312
-0.545788586139679 0.5260634422302246 0.015645086765289307
-1.2945361137390137 0.6247171759605408 -1.0749553442001343
-0.8464581370353699 0.6563735008239746 -1.5534998178482056
-0.8398552536964417 0.9108343124389648 -0.14047253131866455
-0.2768828272819519 0.7574934363365173 -0.6001269817352295
-0.13158398866653442 0.318412184715271 -0.7601667046546936
-0.5505025386810303 0.7246866822242737 -1.151862382888794
-1.1503382921218872 0.759975016117096 -0.40644025802612305
-0.7261387705802917 0.5662094354629517 -0.8710269927978516
-0.27870845794677734 0.6233920454978943 -1.3819658756256104
-0.47985517978668213 0.7381951808929443 -0.27039551734924316
-0.5784112215042114 0.003141939640045166 -0.2814999222755432
-0.01135946810245514 0.8531433939933777 0.1722109317779541
-0.2678626775741577 1.0476089715957642 -0.0911780595779419
-0.6691503524780273 0.4143466055393219 -0.391643226146698
0.19338862597942352 0.8604077696800232 0.1761702299118042
0.3220662474632263 1.097893476486206 -1.2478760480880737
0.4992009103298187 -0.0691903829574585 -1.2810981273651123
0.07558709383010864 1.0215445756912231 -0.378253698348999
0.9725101590156555 0.4995952546596527 0.22398865222930908
0.14902111887931824 0.883771538734436 -0.8271098136901855
0.2607857286930084 1.304450511932373 0.10905051231384277
0.5205723643302917 0.7130902409553528 -0.5660991668701172
0.3395194709300995 0.13324189186096191 -1.0005933046340942
0.38694947957992554 1.0540342330932617 -0.21030712127685547
-0.16405338048934937 0.34406647086143494 0.013433396816253662
0.6181961297988892 0.8596972227096558 -1.1296647787094116
-0.9127709269523621 0.4449220299720764 -0.7081626653671265
-0.297929048538208 0.12520334124565125 -0.787002444267273
-0.7681303024291992 0.44274264574050903 -2.199719190597534
-1.296692132949829 1.4532291889190674 -1.273485779762268
-1.1637210845947266 0.46962642669677734 -0.054467618465423584
-0.5544514656066895 0.5280937552452087 -0.42213308811187744
-0.6671208143234253 0.2871977984905243 -0.5038069486618042
-0.019556522369384766 0.5488154888153076 -1.5948065519332886
-0.0745840072631836 0.500218391418457 -1.178362250328064
0.6288853287696838 1.5814180374145508 -0.22489476203918457
-0.31119781732559204 0.7197744846343994 0.055463552474975586
-0.10914957523345947 0.9672278165817261 0.34013211727142334
-0.3477102518081665 0.7305504679679871 -1.329158067703247
0.08595773577690125 -0.07953572273254395 -1.0401686429977417
0.7996518015861511 1.1547963619232178 -1.110447645187378
0.6247528195381165 0.8739248514175415 -0.5809998512268066
0.6107705235481262 0.8223611116409302 -0.5081567764282227
0.04008067771792412 1.272067904472351 0.1686464548110962
0.4640922248363495 0.9936367273330688 -0.8076872825622559
-0.6756229400634766 0.4974280893802643 0.08480024337768555
-0.7916656732559204 0.04526925086975098 -0.16837668418884277
-1.3314433097839355 -0.12796485424041748 -1.208603024482727
-0.6549538969993591 0.26714223623275757 -0.7307494878768921
-0.5243057012557983 0.21963773667812347 -1.0446208715438843
0.6748698353767395 0.28779757022857666 -0.9300863742828369
-0.15137258172035217 0.3850429654121399 -0.7778249979019165
-1.5886945724487305 0.288551926612854 -0.6963364481925964
-0.48905929923057556 0.3176843822002411 -0.17386436462402344
0.539017915725708 0.6074550747871399 -0.9759443998336792
0.7271990180015564 0.5943578481674194 -0.822701632976532
-0.7958008050918579 0.4264856278896332 -0.7604788541793823
0.002321958541870117 0.4262429177761078 -0.8349208831787109
0.18282592296600342 0.88935786485672 -0.5975325107574463
0.49895694851875305 0.7867138981819153 0.19656729698181152
1.1599513292312622 1.1446914672851562 -0.06743443012237549
0.43126001954078674 0.5630334615707397 -0.6358600854873657
1.3923474550247192 0.74562668800354 -0.5369497537612915
0.3906208276748657 0.4150751531124115 -0.05213582515716553
-1.3303179740905762 0.2037937492132187 -1.3456298112869263
-0.5939945578575134 -0.1998824179172516 -0.9614626169204712
-1.0012516975402832 0.014544963836669922 -0.0747029185295105
-0.1954488605260849 -0.4830560088157654 -0.8274725079536438
-0.052421748638153076 0.1713079959154129 -0.10777020454406738
-0.8894800543785095 0.7482942938804626 -0.9469773769378662
-0.487247496843338 -0.08102872967720032 -0.29774096608161926
-0.4782616198062897 0.44123637676239014 -0.6157986521720886
-0.34130561351776123 0.23115947842597961 -0.4834575355052948
0.1279587745666504 0.36181777715682983 -1.1892685890197754
-0.6535962820053101 0.7376949191093445 -0.6257129907608032
-0.6597386598587036 -0.03946632146835327 -0.1512187123298645
0.7733085751533508 0.9320179224014282 -0.18130004405975342
0.8504341244697571 0.7413439750671387 -0.576869785785675
0.5211246013641357 -0.2618233859539032 0.10333830118179321
0.9455112814903259 0.5162099003791809 -0.6446508765220642
0.4919625222682953 1.068554401397705 -0.25296854972839355
1.1491193771362305 0.6610656976699829 -0.4125690460205078
0.38049060106277466 0.4633179306983948 -1.1331276893615723
0.1790817528963089 0.5495341420173645 -0.2537574768066406
-0.17261846363544464 -0.6390717625617981 -0.9855998158454895
-0.6623319983482361 -0.49048954248428345 -0.8098347187042236
-0.6703282594680786 -0.22357143461704254 -1.1615400314331055
-0.7751238346099854 0.11089670658111572 0.4565090537071228
-0.6155673861503601 0.006163120269775391 1.0620886087417603
-0.9628244638442993 0.004570424556732178 -0.3761030435562134
-0.4521804451942444 0.0567956268787384 -0.5063385367393494
-0.43338969349861145 -0.0029034018516540527 0.02905675768852234
1.4318749904632568 -0.21176868677139282 0.23334777355194092
0.2077566385269165 -0.7508549094200134 0.12949171662330627
0.07650929689407349 1.1380019187927246 -0.9496021270751953
0.30438530445098877 0.19052188098430634 -0.158349871635437
0.08635962009429932 0.2696288824081421 0.7501047849655151
0.5370925664901733 0.005848228931427002 -0.9019286632537842
0.36470022797584534 -0.26911962032318115 -0.6014196872711182
1.3715903759002686 0.6933724880218506 -0.17417776584625244
0.4217910170555115 0.3325580656528473 0.0904536247253418
0.6545788049697876 -0.1080816388130188 -0.4062265157699585
-0.4568403661251068 -0.4273557960987091 -0.759308934211731
-1.1697723865509033 -1.0631859302520752 -0.6207712888717651
-0.3274093270301819 -0.7232117056846619 -1.3004746437072754
-0.8988760113716125 -0.6773574352264404 -0.7209086418151855
-0.2721431851387024 -0.394880473613739 -0.7118924856185913
-0.31648439168930054 -0.40303945541381836 0.6924186944961548
-0.6552410125732422 -0.7447382211685181 0.29194846749305725
-0.12030947208404541 -0.6885145306587219 0.04364463686943054
-0.3096400201320648 -0.6688880920410156 0.06958529353141785
-0.16454744338989258 -0.3653818964958191 0.23575052618980408
0.30901673436164856 -0.25755009055137634 -0.8779752850532532
0.1998290866613388 -0.5814856886863708 -0.8439353704452515
0.4194652736186981 0.5733972787857056 -0.464008092880249
0.16227638721466064 0.12129741907119751 0.8882218599319458
0.3479503095149994 0.4572063088417053 0.350766658782959
0.8927475810050964 -0.2607842683792114 -0.5050534009933472
0.4247802495956421 -0.6098005175590515 0.4377993941307068
0.6964482665061951 -0.38412076234817505 0.2823003828525543
0.5403534770011902 0.021847665309906006 -0.8705224990844727
-0.8541271686553955 -1.3904417753219604 0.14669430255889893
-0.06607979536056519 -0.4219413101673126 -1.1008468866348267
-0.3433424234390259 -0.48394322395324707 -0.931510865688324
-0.9605053067207336 -0.5705366730690002 -1.434550404548645
-0.3487037420272827 -0.6440695524215698 -0.8982782363891602
-0.07405948638916016 -0.6064654588699341 -1.4640297889709473
-0.5048109292984009 -0.95684415102005 -0.8049176931381226
-0.3033563494682312 -0.26967135071754456 -0.14462825655937195
0.32669612765312195 -0.5474825501441956 -0.4242178201675415
-0.26458120346069336 0.14060890674591064 0.880652129650116
-0.5025869607925415 -0.17392969131469727 0.17993077635765076
-0.6377869844436646 -0.12599903345108032 -0.27527058124542236
0.4555339813232422 -0.5067154169082642 -0.9298363924026489
1.5148707628250122 0.38209688663482666 -0.5511561036109924
0.5734098553657532 -0.31252482533454895 -0.11416962742805481
0.4871383011341095 -0.03703027963638306 -0.8451625108718872
0.5765009522438049 -0.05597811937332153 -0.6504072546958923
0.14524894952774048 0.08151143789291382 0.32008033990859985
0.5882737040519714 -0.2522338926792145 -0.39249199628829956
-1.2090213298797607 -0.41884326934814453 -0.8980804681777954
-0.3238845765590668 -0.5579821467399597 -0.41688352823257446
-0.5088545083999634 -1.3672261238098145 -0.5833975076675415
-0.5798747539520264 -0.7275360822677612 -0.09682446718215942
-0.1808639019727707 -0.9959356188774109 -1.0185997486114502
0.27920830249786377 -0.5290032029151917 0.39516574144363403
-0.4985674023628235 -0.8148515224456787 0.7104747295379639
-0.909313976764679 -0.3233342170715332 0.3100605905056
-1.182177186012268 -1.2533636093139648 -0.1668107509613037
-0.17430777847766876 -0.3571378290653229 -0.7986636757850647
-0.08522042632102966 -0.22333940863609314 -0.20891806483268738
0.48574769496917725 -0.9905886054039001 0.17532649636268616
1.1025508642196655 -1.2216273546218872 -0.14049431681632996
0.9197635054588318 -0.6099692583084106 -1.3252512216567993
0.8242630958557129 -0.7828410267829895 -0.6860231161117554
1.4279745817184448 0.3986121118068695 0.5198246240615845
0.6066761016845703 -0.5916991233825684 0.5990629196166992
0.5133362412452698 0.3296682834625244 -0.46928146481513977
1.3116775751113892 -0.5369086861610413 -0.3869880437850952
-1.0626354217529297 -0.14373844861984253 -0.6466081142425537
-0.4646165370941162 -0.7258856296539307 0.9031981229782104
0.4637240767478943 -1.2737547159194946 0.26169952750205994
-0.2614649832248688 -0.923112690448761 -0.43772637844085693
-0.876926600933075 -1.014358401298523 -1.2735304832458496
-0.19417822360992432 -1.0057704448699951 -0.7147125601768494
0.47103026509284973 -1.7694872617721558 -0.7272036075592041
-1.0735069513320923 -0.71340012550354 -0.18561208248138428
-0.24390901625156403 -0.38441193103790283 -0.7538563013076782
0.2274593710899353 -0.5885511040687561 0.3421885073184967
-0.21240416169166565 0.0768226683139801 -0.20273730158805847
0.15501928329467773 -0.3397763967514038 0.915817379951477
0.7713756561279297 -1.3392130136489868 -0.5217323303222656
0.3463476598262787 -1.0505425930023193 -0.11725857853889465
1.4522738456726074 -0.6656622290611267 0.13966676592826843
1.2347809076309204 -0.8186277151107788 -0.9660863876342773
0.38081979751586914 -1.196574091911316 -0.9114143252372742
0.7022771239280701 -0.2225954383611679 -0.053555428981781006
0.6892974972724915 -0.9599626660346985 0.2622680366039276
0.6446954607963562 -0.5629757642745972 -0.27974778413772583
0.7857847213745117 -1.0495432615280151 -0.45262593030929565
1.2937136888504028 -1.0550965070724487 -0.17994248867034912
-0.3667049705982208 -0.8989132642745972 -0.42146944999694824
-0.2722262442111969 -0.13951897621154785 0.19609200954437256
-0.07868635654449463 -0.7527114152908325 -0.5905568599700928
-0.07946912944316864 -1.2308769226074219 -0.8090078234672546
0.13744312524795532 -0.7312288880348206 -1.4676434993743896
-1.3198950290679932 -0.5689501762390137 -0.03511548042297363
1.0645983219146729 -0.22061455249786377 -0.35911300778388977
0.10551634430885315 0.021713197231292725 0.09423530101776123
0.9681501984596252 -1.0143263339996338 0.058855026960372925
0.6897672414779663 -0.5841599106788635 -0.6929720640182495
0.3269821107387543 -0.6835259795188904 -0.0853201150894165
0.5298255085945129 -0.7586795687675476 -1.4793457984924316
-0.19126442074775696 -0.9352039694786072 -0.1779252290725708
-0.7804120779037476 -1.0786608457565308 -0.554835319519043
-0.6429222822189331 -0.7461352348327637 -0.22803151607513428
0.207846999168396 0.3566328287124634 -0.8318265676498413
1.1510049104690552 -0.059073805809020996 -0.7218985557556152
0.8607133030891418 0.135379359126091 0.8046733140945435
0.8005415797233582 -0.345537930727005 -0.12842634320259094
-0.7966271042823792 -0.060971856117248535 -0.9543835520744324
0.011109694838523865 -0.9403505325317383 -0.7932676672935486
-0.2201712727546692 -0.9974155426025391 -0.049132347106933594
-0.1473991721868515 -0.2478352040052414 -0.8960977792739868
-1.0691277980804443 -1.089432716369629 -0.195182204246521
0.6782921552658081 -0.3708377182483673 0.09927913546562195
0.7934063076972961 -0.33525705337524414 0.3080008625984192
0.2848080098628998 0.08010053634643555 -0.5686843991279602
1.1208837032318115 -0.14569121599197388 -0.15188878774642944
0.19543343782424927 -0.2744901180267334 -0.43767914175987244
-0.2721324861049652 -0.6745915412902832 0.04933670163154602
-0.8574788570404053 0.13927483558654785 -0.10115876793861389
-0.1182088553905487 0.16306431591510773 -0.9890543222427368
-0.7755200266838074 -0.42691898345947266 -1.4863121509552002
-0.052029337733983994 -0.10009555518627167 -0.41709104180336
1.166175365447998 0.31335973739624023 -0.09735751152038574
-0.7863650918006897 -0.1602107286453247 -0.3669988811016083
0.44687187671661377 -0.4381251931190491 -0.9000402688980103
-0.40635424852371216 0.24949222803115845 0.5919708609580994
-0.16753283143043518 -0.7221013903617859 -0.9909433722496033
-0.7546084523200989 -0.2668290138244629 -0.6093973517417908
-0.50101637840271 0.22015199065208435 -1.4207537174224854
-0.5217158198356628 0.2136937975883484 -0.680550217628479
0.5435150265693665 -0.7176447510719299 -0.29471996426582336
0.053048696368932724 0.5356412529945374 -0.2597140073776245
0.24434137344360352 0.5714054107666016 0.7608814239501953
-0.03332406282424927 -0.08676230907440186 -1.0878201723098755
-0.22433581948280334 0.2878941297531128 -1.1069846153259277
0.009388744831085205 -0.16290952265262604 -0.8456953763961792
-0.4367154836654663 0.2427765429019928 -0.7158551812171936
-1.190624713897705 0.17997290194034576 -1.3160264492034912
-0.9668064713478088 0.2067975401878357 -0.4853985607624054
0.7989819645881653 0.5814732313156128 -0.8124163150787354
0.5192584991455078 1.0643055438995361 -0.5366002321243286
0.14856953918933868 0.748817503452301 -0.1352860927581787
0.7706425189971924 0.48692333698272705 -1.3902111053466797
0.325675368309021 0.032975584268569946 0.40894752740859985
0.08494758605957031 0.4148305356502533 -0.6777330040931702
-0.6402487754821777 0.8282011151313782 -0.09211671352386475
-0.5615964531898499 0.16739560663700104 -0.8216766119003296
-0.6585206985473633 0.35514524579048157 -0.34787222743034363
0.337374746799469 0.8268716335296631 0.1953141689300537
0.42186030745506287 1.0897090435028076 -0.610343873500824
0.2917620539665222 1.3548860549926758 -1.2548185586929321
0.017031431198120117 1.2049272060394287 -0.7014992237091064
-0.16651427745819092 0.6500605344772339 -1.2431879043579102
0.37418997287750244 0.5644599795341492 -1.238567590713501
-0.25189828872680664 0.1382027566432953 -0.8628576993942261
-0.27181828022003174 0.3221476078033447 -2.1611905097961426
-0.487184077501297 -0.5712425112724304 -1.0309001207351685
-0.1604059934616089 0.5984437465667725 -0.48056408762931824
0.7566292881965637 -0.042638495564460754 0.0895547866821289
-0.4159568250179291 0.27729707956314087 -0.36600998044013977
0.5464454889297485 0.7148547768592834 -0.8117949962615967
-0.21831899881362915 1.1122772693634033 -0.5584717988967896
-1.1323071718215942 0.6850547790527344 -0.26910167932510376
-0.697354793548584 0.7834155559539795 -1.0974349975585938
-0.9282350540161133 0.6046702861785889 0.12727570533752441
-0.31997349858283997 0.12466409802436829 -0.30075603723526
