-0.23699605464935303 -1.06985342502594 -0.04558080434799194
0.9620136618614197 -0.8972028493881226 0.45615166425704956
0.7832649946212769 -0.8801571726799011 -0.8331212997436523
0.8444532155990601 -0.7172029614448547 -1.0266737937927246
0.6251490116119385 -1.5472509860992432 0.014165639877319336
1.2253090143203735 -1.0990269184112549 -0.8262650370597839
-0.056387633085250854 -0.3209483325481415 -0.3478342592716217
0.3053663969039917 -0.4767528772354126 -1.724577784538269
1.083296537399292 -0.7657569646835327 -1.7153403759002686
-0.005998671054840088 -0.967077374458313 -0.6667894124984741
-0.037021100521087646 -0.7392236590385437 1.1195613145828247
-0.7149771451950073 -1.089274525642395 -0.01888108253479004
0.7008438110351562 -0.36615675687789917 -0.6027966141700745
0.28727027773857117 -0.6063825488090515 0.0010955333709716797
1.0290820598602295 -0.627182126045227 -0.4567396640777588
0.2532268464565277 0.09269818663597107 -1.025172472000122
0.5833181142807007 -0.7930654287338257 -0.6848181486129761
0.7431440353393555 -0.2677847146987915 -0.4526832699775696
0.9559551477432251 -0.08327877521514893 -1.250678539276123
0.5602993369102478 -0.5141288638114929 -1.0454742908477783
0.22485925257205963 -0.8006616234779358 0.3022024631500244
0.801749050617218 -1.2196180820465088 0.930505633354187
0.03448319435119629 -0.5088846683502197 -0.764435350894928
0.5975602269172668 0.11590784788131714 -0.9708038568496704
0.13686104118824005 -0.6762814521789551 -0.2378334105014801
1.0394511222839355 0.0028014183044433594 -0.8890272974967957
-0.01810605823993683 0.40017127990722656 -0.8055245876312256
0.841773509979248 0.08394753932952881 -0.7195937633514404
0.6243366003036499 -0.34797078371047974 -1.2742183208465576
0.7709929943084717 0.022818684577941895 -1.235223650932312
0.8692769408226013 -0.6597490310668945 0.3986765742301941
-0.05726929008960724 -0.80845707654953 0.2262181043624878
-0.3582163453102112 -0.627211332321167 -0.14122170209884644
0.7467030882835388 -0.28807783126831055 -0.17517977952957153
-0.6219983696937561 0.6421310305595398 -0.799652636051178
0.8439976572990417 0.26492273807525635 -0.35291770100593567
0.10631987452507019 -0.3372526168823242 -0.7592201232910156
0.24399274587631226 -0.12875619530677795 -1.260524868965149
0.37041977047920227 -0.1201932430267334 -0.6317850947380066
0.02318023145198822 0.004834108054637909 -0.7004578709602356
-0.05390003323554993 -0.9625194668769836 0.5864660739898682
-0.1292576640844345 -0.34172871708869934 -0.1488056778907776
0.34038031101226807 -0.6895499229431152 0.21919500827789307
0.38735082745552063 -1.1028003692626953 -0.511733889579773
0.3761444091796875 -0.8854320645332336 0.3601934313774109
0.21857744455337524 -0.565841019153595 -1.2553279399871826
0.9608035087585449 0.8160699605941772 -0.10373365879058838
0.6606663465499878 0.5793829560279846 -0.6015239357948303
0.5666999816894531 0.29003995656967163 -1.480832815170288
0.5033325552940369 -0.6035353541374207 -0.6752985715866089
-0.3802146315574646 0.17391788959503174 -0.1212230920791626
0.240583598613739 -0.4468359351158142 0.6046302318572998
0.2558286786079407 -0.6276837587356567 -0.06475865840911865
-0.24139681458473206 -0.19411122798919678 -0.38275837898254395
-0.9603137373924255 -0.26985299587249756 -0.44663333892822266
-0.076178178191185 0.3835771381855011 -0.9526737928390503
0.5585265755653381 0.38146182894706726 -1.4161829948425293
0.024972915649414062 -0.5270355939865112 -0.5472248792648315
0.11542858183383942 0.510166585445404 -0.8972465991973877
-0.8404373526573181 0.2944907546043396 -0.9671691060066223
-0.4856151044368744 0.34870293736457825 -0.07680776715278625
-0.7987547516822815 -0.5386873483657837 -0.26626870036125183
-0.4764123558998108 0.4383741021156311 0.38411247730255127
-0.693536639213562 0.2776139974594116 -0.17904379963874817
-0.09349226951599121 1.674748420715332 -0.24899005889892578
0.11384469270706177 0.5906221866607666 -0.39327359199523926
-0.23048174381256104 0.5718779563903809 -0.21092230081558228
0.13286083936691284 0.6934976577758789 -0.8434724807739258
0.2799070477485657 0.6089856028556824 -0.7817346453666687
0.3902348279953003 1.0849634408950806 -1.4624600410461426
-0.4600880742073059 0.12818095088005066 0.6611571311950684
0.09066346287727356 -0.1078442633152008 0.15939640998840332
-0.11447250843048096 0.4545174837112427 0.2908986210823059
-0.5683494806289673 -0.20304971933364868 -0.36461544036865234
-0.23439548909664154 0.1394231915473938 0.06104469299316406
-1.4445290565490723 1.3016940355300903 -1.1354796886444092
-1.336604356765747 0.09062707424163818 -0.6523274183273315
-0.0484209805727005 0.918739378452301 -1.7771495580673218
-0.23278620839118958 0.15435509383678436 -0.5890370607376099
-0.04918229579925537 0.7529089450836182 -1.0822089910507202
-0.5460413098335266 0.23650670051574707 0.5981271266937256
-0.5310310125350952 0.7263208627700806 -0.07239091396331787
-0.06300759315490723 0.636528491973877 0.2103583812713623
-0.45141470432281494 1.1191529035568237 0.05466926097869873
-0.38119399547576904 1.0165247917175293 0.17508995532989502
-0.388158917427063 0.31692200899124146 -1.531467080116272
-0.11333364248275757 0.9375636577606201 -0.16818881034851074
-0.6947110295295715 0.6433547139167786 -0.4870208501815796
-0.5190053582191467 1.888291835784912 -1.7946656942367554
-0.6817760467529297 0.5929567217826843 -0.6291218996047974
-0.775634765625 -0.022636592388153076 -0.27226150035858154
-0.6806359887123108 0.8283283114433289 0.037169575691223145
-1.288934588432312 1.3681674003601074 0.2860680818557739
-0.6352362632751465 0.3370020389556885 0.12824642658233643
-0.8781973719596863 0.06720393896102905 0.5126510858535767
-0.09374547004699707 0.29893240332603455 -0.4401044249534607
-1.584997534751892 0.8405892848968506 -0.7886794805526733
-0.2245657593011856 0.8774446845054626 -1.041969656944275
-0.7539303302764893 1.6280755996704102 -0.2854423522949219
-0.81733238697052 0.5650488138198853 -1.0926001071929932
-0.2771402597427368 -0.9609838724136353 0.2690467834472656
-0.2123749852180481 -0.793292760848999 -0.7058377265930176
0.4417187571525574 -1.1134393215179443 0.40295958518981934
0.9286763072013855 -0.6735092401504517 0.41364943981170654
0.06641137599945068 -1.2063791751861572 -0.6032026410102844
0.4530183672904968 -0.5722731351852417 -0.5898749828338623
0.3295031189918518 -0.15029558539390564 -0.3749431371688843
0.7595475912094116 -0.6054333448410034 -0.05574393272399902
0.08086460828781128 -1.2706208229064941 -0.17243432998657227
0.4083693027496338 -0.7126020193099976 -0.05124577879905701
0.9348488450050354 -0.2802242040634155 -0.03147977590560913
0.14731931686401367 -0.7988889217376709 -0.6639449596405029
-0.337060809135437 -0.4138626456260681 -0.25495803356170654
0.024094581604003906 -0.643343985080719 -1.2878222465515137
0.27007174491882324 -0.8820917010307312 -1.0522822141647339
-0.020594388246536255 -0.7056050300598145 -0.31968533992767334
0.0804869532585144 -0.49778294563293457 -1.4205703735351562
1.2988260984420776 -0.16646790504455566 -0.7087107300758362
0.6301246285438538 0.6952928304672241 -0.25619393587112427
0.5535514950752258 -0.535206139087677 -1.0712323188781738
0.02497190237045288 0.28763964772224426 -1.7663041353225708
0.8115090727806091 -0.2749580144882202 -0.7686194181442261
0.4287720322608948 -0.7047041654586792 -1.6257591247558594
0.6130534410476685 0.03462934494018555 -1.0849730968475342
0.5123135447502136 0.3766929805278778 -0.42874667048454285
0.5354011058807373 -0.3706982135772705 -1.3855819702148438
-0.22427493333816528 -0.39834293723106384 -0.8565775752067566
1.1410472393035889 0.167657732963562 -0.8565962910652161
0.16344738006591797 -0.8191452026367188 0.01752007007598877
0.18204817175865173 -0.14631032943725586 -0.16527286171913147
1.2830564975738525 -0.30959653854370117 0.8733831644058228
1.110605239868164 -1.5742011070251465 0.14578145742416382
-0.3622465133666992 -1.1955902576446533 -0.25236594676971436
0.1042826771736145 -0.6831173896789551 -0.4242027997970581
-0.01928916573524475 -0.5952515602111816 -0.19095304608345032
1.1111912727355957 0.014477014541625977 -0.02270376682281494
0.7634826302528381 -0.10815411806106567 -0.22976845502853394
0.9450093507766724 -0.5144975185394287 -1.7708375453948975
-0.05580401420593262 -0.7507117390632629 -0.9662501811981201
-0.05152082443237305 -0.8313006162643433 -1.3864645957946777
0.9460611343383789 -0.41166555881500244 -0.07185691595077515
0.338410884141922 0.33184105157852173 -0.14789050817489624
1.3626775741577148 0.11383628845214844 -1.1180578470230103
0.7536700367927551 0.01602458953857422 -1.2146813869476318
0.6643785834312439 0.018001914024353027 -1.2282297611236572
0.3060711622238159 -0.8636077642440796 -1.51171875
0.951195240020752 -0.11561089754104614 -1.0271025896072388
-0.31537777185440063 -0.8900172710418701 -0.6558962464332581
-0.44936603307724 -0.627772867679596 -0.21398323774337769
0.05154299736022949 -0.6390225291252136 0.8595176935195923
0.13592633605003357 -0.5127826929092407 -0.045487552881240845
0.3684462606906891 -0.3024856746196747 0.09433537721633911
0.6486830115318298 0.5096087455749512 -0.7528690099716187
0.37928780913352966 -0.20137321949005127 -0.3824000954627991
-0.12473776936531067 -1.2244691848754883 0.5013854503631592
-0.19185113906860352 -0.5714917182922363 -0.5243525505065918
0.8484023809432983 0.2239079475402832 -0.7878931760787964
0.7791293263435364 0.3296600878238678 -0.9954615831375122
0.22094635665416718 -0.707324206829071 -0.013282984495162964
0.4878770112991333 -0.09805744886398315 -0.46058958768844604
0.6574786305427551 -0.3152530789375305 -0.9375295042991638
0.10052645206451416 -0.2321430742740631 -1.5886558294296265
0.695570170879364 0.10529834032058716 -1.9970852136611938
0.5446769595146179 0.08032569289207458 -0.915867269039154
0.8452593684196472 0.6500961780548096 -1.6587159633636475
0.01641017198562622 -0.015232913196086884 -1.19169282913208
0.36166173219680786 -0.8065721392631531 0.791732907295227
0.02346155047416687 -0.11674463748931885 0.27941572666168213
-0.5927761793136597 -0.7886674404144287 -0.12918037176132202
-0.146948903799057 0.31655311584472656 0.07893526554107666
-0.21607369184494019 -0.17644193768501282 -0.7688843011856079
0.5353468060493469 -0.9253765344619751 0.013618767261505127
-0.3543145954608917 -0.29012835025787354 -0.26212894916534424
0.21007955074310303 -0.5210200548171997 -0.3085010051727295
0.01738622784614563 -0.32557860016822815 -0.3797421455383301
0.7377015948295593 0.1299036145210266 -0.28418397903442383
0.3584640920162201 -0.8311832547187805 -0.33106109499931335
-0.4803326725959778 -0.4825916588306427 -0.26729995012283325
0.5401170253753662 -0.017848193645477295 -1.5867716073989868
0.7268449664115906 0.2635127902030945 -1.2956548929214478
-0.4908236265182495 0.4580443799495697 -1.0570930242538452
0.6586463451385498 0.4912218749523163 -1.2072422504425049
0.6036009192466736 -0.2906913757324219 -1.430373191833496
0.636445164680481 0.4894152283668518 -1.5475437641143799
0.828742265701294 0.2383846640586853 -0.5232861042022705
0.19151532649993896 -0.20029133558273315 -0.9952983856201172
-0.12504202127456665 0.472490519285202 0.23727047443389893
-0.28909963369369507 -0.02819344401359558 0.36051833629608154
0.13325178623199463 -0.10457909107208252 0.464394211769104
-0.8567938804626465 -0.8243517875671387 -0.650356650352478
-1.320066213607788 -0.8047751784324646 -1.084118366241455
-0.37012606859207153 -0.6730135679244995 0.04248565435409546
-0.10617996752262115 -0.293375700712204 -0.2156875729560852
-0.5275417566299438 -0.38666898012161255 -0.538666844367981
-0.3102950155735016 1.064293622970581 -1.7269771099090576
-0.9035736322402954 0.5222793817520142 -0.6526839137077332
1.0422587394714355 -0.45280301570892334 -0.7640238404273987
-0.07193322479724884 0.08863681554794312 -0.9668626189231873
-0.7392101883888245 -0.36573314666748047 -1.4436979293823242
0.4126732349395752 0.5747822523117065 -0.5545696020126343
-0.02578708529472351 0.5367857813835144 -0.5105161666870117
0.5433288812637329 0.5694674253463745 -1.8513339757919312
-0.131069153547287 0.020449787378311157 -1.26302969455719
0.012073054909706116 0.5985705256462097 -0.8884215354919434
-0.2308715581893921 0.07081669569015503 0.17191296815872192
-0.9249328374862671 -0.09928250312805176 0.8208273649215698
0.008774280548095703 0.4950464069843292 0.5715912580490112
-0.5352785587310791 -0.11110055446624756 0.5374445915222168
-0.19538015127182007 0.17428413033485413 0.012379765510559082
-1.2314579486846924 -0.23135733604431152 -0.8455939888954163
-1.2479677200317383 -0.1621934175491333 -0.2236340343952179
-0.8893237113952637 0.26467424631118774 -0.4239484965801239
-0.9462451338768005 0.10580778121948242 -0.3321576714515686
-0.8356269598007202 -0.01960456371307373 -0.6680357456207275
0.16737276315689087 0.5629619359970093 -0.30625757575035095
-0.09189856052398682 0.673630952835083 -0.10992705821990967
0.4233925938606262 0.018955230712890625 -1.0221846103668213
-0.913234293460846 -0.25510042905807495 -1.5094081163406372
-0.2606382369995117 -0.1812327802181244 -1.4399151802062988
0.05053436756134033 0.8954353332519531 -0.9026070833206177
-0.979918897151947 0.5122108459472656 -1.0478031635284424
-0.651441216468811 0.6149471998214722 -1.222338080406189
0.40089917182922363 0.5588374733924866 -0.5838969945907593
-1.6051225662231445 0.12960553169250488 0.29103171825408936
0.12472212314605713 0.4478034973144531 0.1435346007347107
-0.11149519681930542 0.2359457015991211 0.23686790466308594
0.033877432346343994 -0.030606240034103394 0.9779844284057617
-0.23858511447906494 0.3221149146556854 0.29340600967407227
0.26912832260131836 0.6538281440734863 0.46402692794799805
-0.5463513731956482 0.3752821683883667 0.47607123851776123
-0.5359591245651245 -0.07889679074287415 -0.3855466842651367
-0.34104427695274353 0.6332669258117676 -0.4700816869735718
-1.0094473361968994 -0.58006751537323 -1.2490684986114502
-0.7639541625976562 -0.37253448367118835 -0.512010395526886
-0.439325749874115 -0.3794634938240051 -0.1622205376625061
0.08611434698104858 0.8392214775085449 -0.24865597486495972
0.6577475070953369 0.9692695140838623 -1.5570528507232666
-0.3511785864830017 0.586545467376709 -0.9282487630844116
0.33095306158065796 0.5491626858711243 -0.5396755933761597
0.20146530866622925 0.5744255781173706 -0.7095842361450195
-0.530726432800293 -0.09014052152633667 -1.1206495761871338
-0.10700733959674835 0.6351227760314941 -0.7891809940338135
-0.32557082176208496 -0.4522726535797119 0.7219271659851074
-0.5267016887664795 0.1576063632965088 -0.06672400236129761
-0.9684220552444458 0.5665816068649292 0.5286237001419067
-0.9348185658454895 -0.01257389783859253 -0.03213474154472351
-0.32959842681884766 0.696079432964325 0.4287736415863037
-0.9366053938865662 0.3662515878677368 -0.968073308467865
-1.554316520690918 -0.11581981182098389 -0.5532194375991821
-1.0617077350616455 -0.6153194904327393 -0.27309513092041016
-1.3782696723937988 -0.11295545101165771 0.6292542219161987
-0.08236080408096313 0.2464972585439682 -0.010802388191223145
-0.40169215202331543 0.07074305415153503 -0.5014920830726624
-1.0146480798721313 0.863447904586792 -0.7427867650985718
-0.767318069934845 1.5466458797454834 -0.8178607821464539
0.431506872177124 1.3521686792373657 -0.23804813623428345
-0.16748183965682983 1.2165932655334473 -0.5034709572792053
-0.1321556568145752 0.6066663861274719 -2.1890296936035156
-1.0369057655334473 0.591862678527832 -1.271024465560913
0.2977200150489807 0.2404550164937973 -0.9639819264411926
-0.098408043384552 1.343703031539917 -1.108904242515564
-0.29452255368232727 -0.5821183323860168 0.3444010019302368
-1.6286897659301758 -0.19767487049102783 -0.7375512719154358
-1.2627733945846558 0.9991419315338135 -0.6525129079818726
-0.726457953453064 0.435194730758667 0.07712709903717041
-0.34210407733917236 0.2623385488986969 1.0300592184066772
-0.5599114298820496 0.6105477809906006 0.24915814399719238
-0.8575699925422668 1.5774030685424805 0.19904875755310059
-0.9932022094726562 -0.3617647886276245 0.3234108090400696
-0.15075242519378662 0.19994068145751953 0.016601860523223877
-0.9497378468513489 0.37915754318237305 -0.8748453855514526
-0.2497844398021698 -0.21050404012203217 -0.5657981634140015
-1.2275832891464233 0.01738417148590088 -1.3085598945617676
-0.6536403298377991 1.477569341659546 -0.3167104125022888
-0.8775609731674194 0.8764004111289978 -0.4433335065841675
-0.5247009992599487 1.3853890895843506 -1.469801425933838
0.12264871597290039 1.6171083450317383 -0.5639115571975708
-0.38466763496398926 1.2059359550476074 0.10590118169784546
-0.30373457074165344 0.6097065806388855 -1.088188648223877
-1.0039787292480469 0.971336305141449 -0.9381723999977112
-0.370814710855484 0.8386794328689575 -0.7514259219169617
-0.5162503719329834 1.2903850078582764 -0.5037344098091125
-0.5820550322532654 1.5953238010406494 -0.9885652661323547
-0.7510037422180176 0.33817100524902344 0.12082242965698242
-0.6923642158508301 -0.22814887762069702 -0.6809452176094055
-0.45870083570480347 0.505806028842926 -0.018381446599960327
-0.6036112308502197 0.859865665435791 0.3421822190284729
0.24909508228302002 0.8880985975265503 0.3931170701980591
-1.076586365699768 -0.6734969019889832 0.3137989044189453
0.015979737043380737 0.9581429958343506 -1.1201355457305908
-0.4153648912906647 -0.02168416976928711 -0.9252885580062866
-0.8164006471633911 1.2655353546142578 -0.9569473266601562
-0.07235169410705566 0.9962698221206665 -0.5078698396682739
-0.6731667518615723 0.6264362931251526 -0.6217638254165649
0.3449286222457886 1.197843074798584 0.17011773586273193
-0.9039149284362793 0.4245653748512268 -0.1252758502960205
-0.87865149974823 0.17992591857910156 0.5449846982955933
-0.8682309985160828 -0.012287318706512451 0.0986407995223999
0.49635517597198486 0.09587231278419495 -0.5576205849647522
0.4047490358352661 1.0196141004562378 -1.0188709497451782
-0.6572233438491821 0.274178147315979 -1.895821213722229
-0.3011336028575897 0.7784499526023865 -1.0446534156799316
0.05231940746307373 -0.3541540503501892 0.3360738158226013
-0.4066178798675537 0.7427342534065247 0.14135479927062988
-1.0445441007614136 0.4070565700531006 -0.16006645560264587
0.06484103202819824 0.22495591640472412 -0.016469120979309082
-1.2235466241836548 -0.12330424785614014 0.501144528388977
-0.5150516629219055 0.6425871849060059 -1.1013553142547607
-0.6132210493087769 0.6493611931800842 -1.3213531970977783
0.15058524906635284 0.25294438004493713 -0.6436921954154968
-0.07185901701450348 0.8975579142570496 -1.320976734161377
-0.19320131838321686 0.37110576033592224 -0.5068225860595703
-0.9251552820205688 0.14246994256973267 -0.33993247151374817
-0.4561004638671875 -0.7526015043258667 -0.2593610882759094
0.40065798163414 0.017294466495513916 -0.16625213623046875
0.2118963599205017 0.031002908945083618 0.8295309543609619
-0.16361244022846222 0.07501793652772903 -0.44739532470703125
0.19176369905471802 0.632293701171875 -1.5964595079421997
-0.434120237827301 -0.4432715177536011 0.003795802593231201
0.10567581653594971 0.7823716998100281 -0.2939649820327759
-0.7687599658966064 -0.6743775606155396 -1.0289161205291748
-0.17245924472808838 0.5290530323982239 0.2760082483291626
-0.3173523545265198 -0.2886272370815277 0.187053382396698
0.6479381322860718 -0.18438047170639038 0.31783950328826904
0.10117316246032715 -0.3948839604854584 -0.13504862785339355
-0.4850427508354187 0.8637237548828125 -0.6075202226638794
0.15338242053985596 -0.28311556577682495 -0.9069872498512268
-0.5134869813919067 -0.4387403428554535 -1.6883659362792969
0.3365645110607147 0.26109737157821655 -0.040452420711517334
0.5370650291442871 -0.10652846097946167 -0.08370563387870789
0.12397611141204834 0.2745690941810608 -0.1849232316017151
0.16792689263820648 -0.3406381607055664 -0.17885059118270874
0.3623657822608948 -0.6966963410377502 0.6974736452102661
-0.16363579034805298 -0.7716550827026367 0.020376920700073242
0.7826578617095947 0.38784536719322205 -1.0404796600341797
0.8140164017677307 -0.19157814979553223 -1.265716314315796
0.22377276420593262 -0.3779951333999634 -1.1438281536102295
1.1344231367111206 0.5809372663497925 -0.6132016181945801
-0.5778273344039917 0.04914051294326782 -1.266214370727539
0.38863086700439453 -0.07231810688972473 -0.6060301065444946
0.03220611810684204 -1.0209424495697021 -0.7191869020462036
0.16357830166816711 -0.3576909899711609 0.0004981160163879395
-0.08706212043762207 -0.6729121208190918 -0.32653364539146423
0.08376610279083252 -0.3759125769138336 -1.5063612461090088
0.8576382398605347 -0.25933563709259033 -1.1704487800598145
1.4587438106536865 -0.34596848487854004 -0.8047184348106384
0.888779878616333 -0.604884922504425 -0.9153082370758057
0.8810044527053833 -0.2512667179107666 -0.20124518871307373
0.9677131772041321 0.19953584671020508 -0.499520868062973
0.2576257288455963 -0.09996265172958374 -0.1517915427684784
1.3111166954040527 0.12096619606018066 0.5973726511001587
-0.1331309676170349 0.21054092049598694 0.42941999435424805
0.29648926854133606 -0.42007845640182495 -0.6639989614486694
-0.2789574861526489 0.4999657869338989 -1.2959438562393188
-0.058512866497039795 -0.440833181142807 -0.4292508363723755
0.7993735074996948 0.11876165866851807 -0.946245014667511
0.6634076833724976 -0.7597653269767761 -0.8170738816261292
-0.06149458885192871 -1.2479228973388672 -0.2358279824256897
0.7180903553962708 -0.7648069262504578 -0.026447057723999023
-0.3456305265426636 -1.1542489528656006 -0.5759954452514648
-0.17703324556350708 -0.2931176722049713 -0.4592623710632324
