-0.947792649269104 -0.5615182518959045 -0.978245198726654
-0.943720281124115 -1.1823598146438599 0.17661792039871216
0.10222864151000977 -1.2316094636917114 -0.5967074632644653
0.3564704358577728 -1.1836588382720947 -0.5680264830589294
-0.9579510688781738 -1.4829858541488647 -0.623891294002533
0.12866830825805664 -1.6888325214385986 -0.4133986830711365
-0.3057255446910858 -0.18922382593154907 -0.6122092008590698
0.8958353996276855 -0.7430511713027954 -1.160016655921936
0.9875677824020386 -1.4789830446243286 -0.7874929308891296
-0.308707594871521 -0.7331669926643372 -1.087468147277832
-1.7277307510375977 -0.29450491070747375 -0.06870520114898682
-1.1192364692687988 -0.24630585312843323 -1.295743465423584
0.11198538541793823 -0.7734047770500183 -0.259080171585083
-0.6271892189979553 -0.5787062048912048 -0.3547409176826477
-0.031494952738285065 -1.1636741161346436 -0.10316091775894165
0.5422897934913635 -0.19896464049816132 -0.5314169526100159
-0.0431273877620697 -1.0118434429168701 -0.608190655708313
0.04117854684591293 -0.7101788520812988 -0.10100030899047852
0.8608810901641846 -0.8358324766159058 -0.2696017920970917
0.3794201910495758 -0.8469641208648682 -0.6599292159080505
-0.98673015832901 -0.6330544948577881 -0.3457152247428894
-1.5355792045593262 -1.2375633716583252 0.14051957428455353
-0.010260194540023804 -0.4453282058238983 -0.8656749725341797
0.6076275110244751 -0.4089581072330475 -0.2599509060382843
-0.500277578830719 -0.5604965090751648 -0.6158111691474915
0.6177147030830383 -0.7794281244277954 0.018255174160003662
0.41373196244239807 0.23790457844734192 -0.43641936779022217
0.4524998962879181 -0.5624769926071167 0.015976160764694214
0.665697455406189 -0.80364990234375 -0.6457059383392334
0.8407775163650513 -0.6314834952354431 -0.32913196086883545
-0.8165964484214783 -0.9567569494247437 0.21169838309288025
-1.0086716413497925 -0.45739954710006714 -0.5782982707023621
-0.7053970694541931 -0.1744944155216217 -0.8722711205482483
-0.20159345865249634 -0.6877574324607849 0.03313266113400459
0.3393262028694153 0.8237035274505615 -0.7094916701316833
0.2234833687543869 -0.3818405270576477 0.3025599718093872
0.08279956132173538 -0.37014901638031006 -0.7230801582336426
0.6401243805885315 -0.3852604925632477 -0.7768560647964478
0.14907363057136536 -0.3758387863636017 -0.36436206102371216
0.16097129881381989 -0.0593721866607666 -0.5659323930740356
-1.3810516595840454 -0.5192230939865112 -0.4732445180416107
-0.5047398805618286 -0.1262747198343277 -0.5699607133865356
-0.83315509557724 -0.6436386108398438 -0.25146105885505676
-0.3849247395992279 -1.0764350891113281 -0.8162763118743896
-1.0291508436203003 -0.7887173891067505 -0.25965848565101624
0.43370917439460754 -0.6813218593597412 -1.0247606039047241
0.2922596335411072 -0.029880709946155548 0.8034533262252808
0.5200183391571045 -0.06638393551111221 0.2197646200656891
1.1075999736785889 -0.33527934551239014 -0.4496951997280121
0.009722769260406494 -0.8198410868644714 -0.5557314157485962
-0.37215739488601685 0.4190349578857422 -0.4487541615962982
-1.0804870128631592 -0.346521258354187 0.009265348315238953
-0.5901780128479004 -0.5819672346115112 -0.4210631549358368
-0.27398765087127686 0.02290358394384384 -0.6865763664245605
-0.4645451605319977 0.44878485798835754 -1.2424287796020508
0.5138068199157715 0.2446041703224182 -0.5598728060722351
1.091200590133667 -0.25483188033103943 -0.3731206953525543
-0.20490145683288574 -0.42103704810142517 -0.7701499462127686
0.5794671773910522 0.2130177617073059 -0.335147887468338
0.2622305154800415 0.6987769603729248 -1.1279186010360718
-0.36284929513931274 0.6226993799209595 -0.40330225229263306
-0.6894207000732422 0.17124150693416595 -1.1849356889724731
-0.7101976275444031 0.7463619709014893 -0.11238981038331985
-0.36898744106292725 0.6986254453659058 -0.6333779692649841
0.48812219500541687 1.2842391729354858 0.4798840284347534
0.1884278953075409 0.3435174822807312 -0.03427790850400925
-0.07519814372062683 0.590347945690155 -0.18172374367713928
0.6206924319267273 0.34053775668144226 -0.19787105917930603
0.5739732980728149 0.18847841024398804 -0.11259666830301285
1.3941421508789062 0.35870927572250366 -0.13401378691196442
-1.0778826475143433 0.5516990423202515 -0.12480449676513672
-0.5968741774559021 -0.06411653757095337 -0.13902734220027924
-0.517977774143219 0.4983370006084442 0.09128934890031815
-0.38922327756881714 0.24162358045578003 -0.901494026184082
-0.4989467263221741 0.32087934017181396 -0.275651216506958
0.6757731437683105 1.8098888397216797 -1.081786870956421
-0.2404334992170334 0.9347620010375977 -1.4081112146377563
1.4577207565307617 0.4931503236293793 -0.6789565086364746
0.05817645788192749 0.23815156519412994 -0.6006156802177429
0.7957226634025574 0.4732348322868347 -0.4109918475151062
-1.0015487670898438 0.6791001558303833 -0.15701168775558472
-0.211816668510437 0.9256093502044678 -0.22977346181869507
-0.3537198603153229 0.5826582312583923 0.18169249594211578
-0.12109804153442383 1.1717641353607178 0.09882652759552002
-0.2480657696723938 1.0673211812973022 0.15300607681274414
0.8823114633560181 0.3268437087535858 -1.1022911071777344
0.0857909619808197 0.7794650793075562 0.11423791944980621
0.05403830111026764 0.9184988737106323 -0.597010612487793
1.766084909439087 1.5077475309371948 -0.48584359884262085
0.155623659491539 0.853286862373352 -0.6882674098014832
-0.4478551745414734 0.5254994034767151 -0.8967928886413574
-0.30298787355422974 1.1163209676742554 -0.21940256655216217
-0.4517025351524353 1.9537127017974854 -0.21141812205314636
-0.5854341983795166 0.7452760338783264 -0.40462541580200195
-1.1020276546478271 0.77139812707901 -0.5143389105796814
0.0373137891292572 0.2685599625110626 -0.35352054238319397
0.13590137660503387 1.623420238494873 -1.2442313432693481
0.7656674385070801 0.6878348588943481 -0.44150686264038086
0.30445680022239685 1.69509756565094 -0.007094774395227432
0.4955650568008423 0.8596578240394592 -1.0323107242584229
-1.177298665046692 -0.41125205159187317 -0.7853668928146362
-0.2588498592376709 -0.47334298491477966 -1.153214693069458
-1.1475927829742432 -0.9911317825317383 -0.3154827356338501
-0.8179658055305481 -1.0049529075622559 0.2519116699695587
-0.44778740406036377 -0.9453933238983154 -1.1340399980545044
-0.06339320540428162 -0.7509878277778625 -0.5289104580879211
-0.09363043308258057 -0.3331260085105896 -0.27594003081321716
-0.44014182686805725 -0.9075918197631836 -0.06642638891935349
-0.8365968465805054 -0.9401943683624268 -0.9373245239257812
-0.5946654081344604 -0.7449106574058533 -0.3570963442325592
-0.26448580622673035 -0.7897729277610779 0.2374550700187683
-0.1912735253572464 -0.7162659168243408 -0.8932373523712158
-0.5079948902130127 -0.0517367422580719 -0.802527666091919
0.36965328454971313 -0.6092445850372314 -1.213408350944519
0.13625192642211914 -0.9147932529449463 -1.054826259613037
-0.49026668071746826 -0.48601454496383667 -0.7792248725891113
0.5633021593093872 -0.5618890523910522 -1.165996789932251
0.46589282155036926 -1.052013635635376 0.19457478821277618
0.27048709988594055 0.08676674962043762 0.43862539529800415
0.3898511528968811 -0.8611769676208496 -0.6889538168907166
1.1891474723815918 -0.00879436731338501 -0.9612873792648315
0.32533833384513855 -0.8067597150802612 -0.2212759554386139
0.7469587326049805 -0.9768286347389221 -1.148191213607788
0.6725856065750122 -0.4941348433494568 -0.3516366183757782
0.2400972694158554 -0.08650660514831543 0.10067123174667358
0.7237126231193542 -0.7752642631530762 -0.7747660875320435
0.0410003662109375 -0.20283757150173187 -1.0276508331298828
0.6934618353843689 -0.7255092859268188 0.19118964672088623
-0.7721157073974609 -0.6449799537658691 -0.5430865287780762
-0.3125026226043701 -0.20009592175483704 -0.2650569975376129
-0.9409817457199097 -0.919353187084198 0.9204266667366028
-0.9388999938964844 -1.8141158819198608 -0.24480454623699188
-0.8655515313148499 -0.595994234085083 -1.235743522644043
-0.3551982641220093 -0.5697111487388611 -0.7370908260345459
-0.5496758818626404 -0.38930991291999817 -0.6532471179962158
-0.0890008881688118 -0.6967869997024536 0.5177786946296692
-0.07039585709571838 -0.5776376724243164 0.11247256398200989
1.105802059173584 -1.2121706008911133 -0.7745956182479858
0.026355352252721786 -0.586324155330658 -1.159172773361206
0.3472626507282257 -0.7068566083908081 -1.4152653217315674
-0.285545289516449 -0.8975996971130371 0.15401175618171692
-0.06849932670593262 0.039545655250549316 0.10428664088249207
0.9557264447212219 -0.9522050619125366 0.17685994505882263
0.8152917623519897 -0.6216551661491394 -0.33383452892303467
0.8014424443244934 -0.5613760352134705 -0.39967551827430725
0.5437479019165039 -0.9912919998168945 -1.256852626800537
0.6559355854988098 -0.8240617513656616 -0.1751934289932251
-0.374373197555542 -0.46563920378685 -1.2483692169189453
-0.6708242893218994 -0.12318751215934753 -0.9711408615112305
-1.437137246131897 -0.3197322487831116 -0.08933839201927185
-0.5905072093009949 -0.4150373041629791 -0.4302581548690796
-0.5469875931739807 -0.4023292362689972 -0.08998534828424454
0.613490104675293 -0.12987111508846283 0.09668035805225372
-0.09545445442199707 -0.40478113293647766 -0.27364251017570496
-1.4464519023895264 -0.6713340878486633 -0.7044574022293091
-0.3076438903808594 -0.30213662981987 -0.9276899099349976
0.5745309591293335 -0.4761139750480652 0.060106925666332245
0.7768993377685547 -0.3824526071548462 -0.036545127630233765
-0.6794124841690063 -0.6081401109695435 -0.46057677268981934
0.04854089021682739 -0.4155644178390503 -0.18573075532913208
0.4051261246204376 -0.754862368106842 -0.4329841434955597
0.8296358585357666 -0.40851595997810364 -1.0969905853271484
1.4999443292617798 -0.6291137933731079 -0.7271500825881958
0.5297970175743103 -0.39072418212890625 -0.2862307131290436
1.500084638595581 -0.2914297878742218 -0.1617514044046402
0.5656640529632568 -0.13897833228111267 -0.8336018323898315
-1.3634015321731567 -0.6608753800392151 -0.005516877397894859
-0.7220916748046875 -0.007714107632637024 -0.12722328305244446
-0.8562594056129456 -0.12913855910301208 -1.1097893714904785
-0.40958482027053833 0.39118435978889465 -0.11312799155712128
0.06798925995826721 -0.036497198045253754 -0.8585360050201416
-0.7070112228393555 -0.9750372767448425 -0.3522112965583801
-0.4519102871417999 0.04790835082530975 -0.7516878843307495
-0.3498987555503845 -0.5088038444519043 -0.5200246572494507
-0.25915032625198364 -0.24730448424816132 -0.5815576314926147
0.07404851913452148 -0.3967445492744446 0.19439128041267395
-0.4253503680229187 -0.8359099626541138 -0.5977208614349365
-0.5701733827590942 -0.005351722240447998 -0.9417579174041748
1.052380084991455 -0.5534917116165161 -0.6864627599716187
0.9860973954200745 -0.43704739212989807 -0.2612241804599762
0.5136688351631165 0.5655428767204285 -0.852067768573761
0.9926523566246033 -0.2144235223531723 -0.1399194300174713
0.817227840423584 -0.7705585956573486 -0.7092577815055847
1.2732493877410889 -0.24895845353603363 -0.3306392729282379
0.3513365387916565 -0.41473257541656494 0.19060391187667847
0.3684919476509094 -0.3632616400718689 -0.7140218615531921
-0.4677054286003113 0.51082843542099 0.06624200940132141
-0.8429768085479736 0.28021326661109924 -0.2480466514825821
-0.8409731388092041 -0.04742744192481041 0.048017069697380066
-0.5086466670036316 -0.04910633713006973 -1.5738624334335327
-0.2688404321670532 0.2186957150697708 -2.0972445011138916
-0.8847053050994873 -0.173200786113739 -0.810343861579895
-0.4198608994483948 -0.11673897504806519 -0.5630020499229431
-0.3117315471172333 0.05716191232204437 -1.0616320371627808
1.4032471179962158 0.7831429243087769 -0.7511943578720093
0.07903609424829483 0.9501320719718933 -0.8870133757591248
0.3099718689918518 -1.0909886360168457 -0.1590406447649002
0.3957676887512207 0.02774646133184433 -0.7218873500823975
0.40120309591293335 0.08770968019962311 -1.657546877861023
0.4054991900920868 0.10579663515090942 0.07496923208236694
0.2226978838443756 0.3832226097583771 -0.2170083075761795
1.5385922193527222 -0.17120608687400818 -0.5064662098884583
0.5986417531967163 -0.023078031837940216 -0.9501864910125732
0.5810346007347107 0.34815797209739685 -0.3527597486972809
-0.6222529411315918 0.2849302589893341 -0.2529733180999756
-1.4505802392959595 0.72735595703125 -0.4763106405735016
-0.7012650966644287 0.48344501852989197 0.33989471197128296
-1.1017839908599854 0.41335180401802063 -0.36667850613594055
-0.4308110177516937 0.3124582767486572 -0.2558425962924957
-0.18940357863903046 0.6043403148651123 -1.6088581085205078
-0.6896706819534302 0.753649115562439 -1.2634159326553345
-0.22497601807117462 0.7878082990646362 -0.8975473642349243
-0.39005035161972046 0.725432276725769 -0.9734672904014587
-0.12925702333450317 0.5122855305671692 -1.1387972831726074
0.1181967705488205 0.29956501722335815 0.03158481419086456
-0.07470017671585083 0.5834822058677673 0.0175541490316391
0.5568516254425049 -0.3673703670501709 -0.45505714416503906
0.45499688386917114 0.27634021639823914 -1.7490158081054688
0.6205127239227295 -0.1049429178237915 -1.235795021057129
0.7364644408226013 0.533295750617981 -0.1756303459405899
0.3864521086215973 0.938728928565979 -1.1466572284698486
0.6762037873268127 0.7641563415527344 -0.9609606266021729
0.41976049542427063 0.09818637371063232 0.04347848892211914
-1.099981665611267 1.2795922756195068 -1.082815170288086
-0.3261241614818573 0.30974864959716797 0.17254209518432617
-0.5686858892440796 0.3315621018409729 -0.05124688148498535
-1.2717201709747314 0.14634859561920166 0.28472352027893066
-0.6154431104660034 0.4880322217941284 -0.06146840751171112
-0.46320921182632446 0.4050371050834656 0.5442172288894653
-0.8366000056266785 0.7616972327232361 -0.14579302072525024
-0.30674782395362854 0.3058202266693115 -0.8241777420043945
0.13895945250988007 0.6729055643081665 -0.35630059242248535
0.0618571937084198 0.14529407024383545 -1.8534469604492188
-0.39734089374542236 0.23203912377357483 -1.1990737915039062
-0.6011414527893066 0.05577400326728821 -0.8051443696022034
0.168599933385849 0.561591386795044 0.15423040091991425
1.5011444091796875 0.08002552390098572 -0.06486129760742188
0.5028231739997864 0.5811331868171692 -0.6234776973724365
0.3575223386287689 0.1451312005519867 0.014080572873353958
0.4745365381240845 0.22729121148586273 -0.14664189517498016
0.31171882152557373 0.18973566591739655 -1.2043793201446533
0.4784121513366699 0.4695867598056793 -0.3621719777584076
-1.3482201099395752 0.05163383483886719 -0.3133969306945801
-0.46849724650382996 0.514773964881897 -0.527794361114502
-0.9197155237197876 1.1939518451690674 -0.2998991310596466
-0.6932302713394165 0.6752085089683533 -0.8748869895935059
-0.5902031064033508 0.8379608988761902 0.14678600430488586
0.2667296528816223 0.8156821727752686 -1.1545964479446411
-0.48004382848739624 0.9486873745918274 -1.6136208772659302
-0.7948904633522034 0.294201135635376 -1.4058890342712402
-1.4275649785995483 0.9989107847213745 -0.886347234249115
-0.34590044617652893 0.2841235399246216 -0.1533103585243225
-0.10265624523162842 0.30548277497291565 -0.7136805057525635
0.27455297112464905 1.2581149339675903 -0.8255963325500488
0.7147369980812073 1.5700478553771973 -0.33315008878707886
0.4892730414867401 0.696597695350647 0.6655675172805786
0.47778084874153137 0.969206690788269 0.0546911358833313
1.6427165269851685 0.2673678994178772 -1.1135197877883911
0.5940486788749695 1.0030461549758911 -1.257049322128296
0.5693427324295044 -0.11437660455703735 -0.39117082953453064
1.0668532848358154 0.9275116324424744 -0.142115518450737
-1.07750403881073 -0.11645042896270752 -0.5559054613113403
-0.3823425769805908 0.914302408695221 -1.8019874095916748
0.1857946515083313 1.5373594760894775 -0.8732688426971436
-0.5252339839935303 0.8706741333007812 -0.4396630823612213
-1.295666217803955 0.6202058792114258 0.21561303734779358
-0.5438709855079651 0.907756507396698 -0.14579468965530396
-0.15840661525726318 1.7980694770812988 0.14520539343357086
-1.1666053533554077 0.5145297050476074 -0.917948842048645
-0.40987157821655273 0.30111634731292725 -0.21001005172729492
0.18974635004997253 0.8471419811248779 -1.1086145639419556
-0.12888343632221222 -0.009173095226287842 -0.7950131297111511
0.31415143609046936 0.7146770358085632 -1.7112444639205933
0.29333406686782837 1.514227271080017 -0.03625030070543289
0.06717750430107117 1.2166496515274048 -0.5727939605712891
1.2657008171081543 1.1963815689086914 -0.5914244651794434
0.7923064827919006 1.0509405136108398 0.43236082792282104
-0.10623347759246826 1.1959714889526367 0.21631813049316406
0.6623680591583252 0.5427570343017578 -0.6614369750022888
0.49101459980010986 1.3006234169006348 -0.8611868619918823
0.45969581604003906 0.8008129000663757 -0.4111000597476959
0.4085448682308197 1.2596148252487183 -0.14012840390205383
0.9351749420166016 1.454662561416626 -0.2704978287220001
-0.6125913858413696 0.8238674998283386 -0.48552340269088745
-0.16914162039756775 0.2630632221698761 -1.160682201385498
-0.3344539403915405 0.7255779504776001 -0.2712826728820801
-0.5244125127792358 1.1298874616622925 0.005868896842002869
-0.3048095107078552 0.5769526362419128 0.6194959878921509
-1.321696162223816 0.3459068536758423 -1.1454029083251953
0.9382825493812561 0.5709755420684814 -0.277091920375824
0.21074500679969788 0.1881570667028427 -0.9899912476539612
0.6928815841674805 1.3816852569580078 -0.587746262550354
0.41133326292037964 0.7454938888549805 -0.0014227628707885742
0.16682684421539307 0.8725311160087585 -0.6608210206031799
0.049850210547447205 0.7026233673095703 0.7347254753112793
-0.41077595949172974 0.9550782442092896 -0.6684561371803284
-1.0793402194976807 0.8573058843612671 -0.4378081262111664
-0.784213662147522 0.64866703748703 -0.7628430128097534
0.21944677829742432 -0.29575878381729126 -0.12628799676895142
0.9940100908279419 0.3648918569087982 0.06873874366283417
1.0926222801208496 0.42751920223236084 -1.492945909500122
0.701411783695221 0.6684351563453674 -0.5471699237823486
-0.8672424554824829 -0.18991735577583313 -0.20557819306850433
-0.34885621070861816 0.8830817937850952 -0.02766704559326172
-0.43038642406463623 1.0332828760147095 -0.7900826930999756
-0.30751538276672363 0.16763389110565186 -0.06892256438732147
-1.278398036956787 0.8679475784301758 -0.853844165802002
0.6261573433876038 0.7083643674850464 -0.7924804091453552
0.7865058183670044 0.7488019466400146 -0.9677951335906982
0.26075997948646545 0.04026352986693382 -0.3186914622783661
1.0554702281951904 0.5586960315704346 -0.4716164171695709
0.09671402722597122 0.3786487579345703 -0.41600123047828674
-0.36096644401550293 0.7363175749778748 -0.9437185525894165
-0.6899734735488892 -0.21475552022457123 -1.0656672716140747
-0.17472156882286072 -0.23147809505462646 -0.031413331627845764
-1.0664767026901245 0.048348039388656616 0.3608548045158386
-0.07668489217758179 0.15417350828647614 -0.5237919092178345
1.2477941513061523 0.14947478473186493 -0.5779279470443726
-0.7684766054153442 0.029963750392198563 -0.7504379749298096
0.18736591935157776 0.5009840130805969 0.11370822787284851
-0.09578206390142441 -0.055043429136276245 -1.629154920578003
-0.48921072483062744 0.5892576575279236 0.08453649282455444
-0.8204323649406433 0.08764496445655823 -0.49527817964553833
-0.6015262007713318 -0.4759580194950104 0.27555912733078003
-0.4724470376968384 -0.31937944889068604 -0.4366157054901123
0.3155848979949951 0.9170145988464355 -0.40045350790023804
0.24572211503982544 -0.38427606225013733 -0.738491952419281
0.6419200301170349 -0.15317322313785553 -1.670750617980957
-0.19143015146255493 0.005228966474533081 0.12045526504516602
-0.2596655488014221 -0.40158841013908386 0.03640931844711304
-0.12556296586990356 0.13909868896007538 -0.08927690982818604
-0.3916599750518799 -0.33206143975257874 -0.38533294200897217
-1.23453688621521 -0.5957872867584229 0.00522555410861969
-0.8493382334709167 -0.38779181241989136 -0.7357985973358154
0.841922402381897 -0.34943723678588867 -0.026221811771392822
0.7837605476379395 -0.8191744685173035 -0.4304628372192383
0.4245157837867737 -0.5340256690979004 -0.8636253476142883
0.6695594787597656 -0.38942551612854004 0.5326000452041626
0.48305732011795044 0.30120792984962463 -1.2363773584365845
0.1539364457130432 -0.35017186403274536 -0.31332725286483765
-0.2771468758583069 -0.8053276538848877 -1.1175239086151123
-0.5522651672363281 -0.3158740699291229 -0.3052102327346802
-0.48941707611083984 -0.4182469844818115 -0.8098933100700378
0.6910967230796814 -0.4887312054634094 -1.1427664756774902
0.685793399810791 -0.8840259313583374 -0.38843175768852234
0.5141276717185974 -1.303508996963501 0.15668892860412598
0.3252488970756531 -1.1172958612442017 -0.4210447669029236
-0.12375953793525696 -0.7564302682876587 0.12955521047115326
0.3547017276287079 -0.5338752269744873 0.2753428816795349
-0.28110790252685547 -0.21632158756256104 -0.18263769149780273
-0.5075711607933044 -0.6682562828063965 1.0274739265441895
-0.7492506504058838 0.35539132356643677 0.019593864679336548
0.02115190029144287 -0.5455946326255798 -0.5907546281814575
0.7965584993362427 0.41751015186309814 -0.8101831078529358
-0.2908312678337097 -0.28549709916114807 -0.7195180058479309
0.647318959236145 -0.5407980680465698 -0.11034185439348221
0.10708427429199219 -1.061222791671753 -0.604595422744751
-0.8146178722381592 -0.8359821438789368 -1.0533277988433838
-0.5480325818061829 -0.9897386431694031 -0.16434724628925323
-0.5684674382209778 -0.6235771179199219 -1.3687893152236938
-0.23445239663124084 -0.10292863845825195 -0.7355765104293823
